418.072313 -2087.710748 238.329206
417.751140 -2088.995439 239.828012
417.429968 -2090.280129 241.326817
417.108795 -2091.564820 242.825623
416.787622 -2092.849510 244.324429
416.466450 -2094.134201 245.823234
416.000000 -2096.000000 248.000000
415.577247 -2097.634224 246.927343
415.154494 -2099.268448 245.854687
414.731741 -2100.902672 244.782030
414.308988 -2102.536896 243.709374
413.886235 -2104.171120 242.636717
413.463483 -2105.805343 241.564060
413.040730 -2107.439567 240.491404
412.617977 -2109.073791 239.418747
412.195224 -2110.708015 238.346090
411.772471 -2112.342239 237.273434
411.349718 -2113.976463 236.200777
410.926965 -2115.610687 235.128121
410.504212 -2117.244911 234.055464
410.081459 -2118.879135 232.982807
409.658706 -2120.513359 231.910151
409.235954 -2122.147582 230.837494
408.813201 -2123.781806 229.764838
408.390448 -2125.416030 228.692181
407.967695 -2127.050254 227.619524
407.544942 -2128.684478 226.546868
407.122189 -2130.318702 225.474211
406.699436 -2131.952926 224.401554
406.276683 -2133.587150 223.328898
405.853930 -2135.221374 222.256241
405.431177 -2136.855598 221.183585
405.008425 -2138.489821 220.110928
404.585672 -2140.124045 219.038271
404.162919 -2141.758269 217.965615
403.740166 -2143.392493 216.892958
403.317413 -2145.026717 215.820302
402.894660 -2146.660941 214.747645
402.471907 -2148.295165 213.674988
402.049154 -2149.929389 212.602332
401.626401 -2151.563613 211.529675
401.203648 -2153.197837 210.457018
400.780896 -2154.832061 209.384362
400.358143 -2156.466284 208.311705
399.935390 -2158.100508 207.239049
399.512637 -2159.734732 206.166392
399.089884 -2161.368956 205.093735
398.667131 -2163.003180 204.021079
398.244378 -2164.637404 202.948422
397.821625 -2166.271628 201.875765
397.398872 -2167.905852 200.803109
396.976119 -2169.540076 199.730452
396.553367 -2171.174300 198.657796
396.130614 -2172.808523 197.585139
395.707861 -2174.442747 196.512482
395.285108 -2176.076971 195.439826
394.862355 -2177.711195 194.367169
394.439602 -2179.345419 193.294513
394.016849 -2180.979643 192.221856
393.594096 -2182.613867 191.149199
393.171343 -2184.248091 190.076543
392.748590 -2185.882315 189.003886
392.325838 -2187.516539 187.931229
391.903085 -2189.150763 186.858573
391.480332 -2190.784986 185.785916
391.057579 -2192.419210 184.713260
390.634826 -2194.053434 183.640603
390.212073 -2195.687658 182.567946
389.789320 -2197.321882 181.495290
389.366567 -2198.956106 180.422633
388.943814 -2200.590330 179.349977
388.521061 -2202.224554 178.277320
388.098308 -2203.858778 177.204663
387.675556 -2205.493002 176.132007
387.252803 -2207.127225 175.059350
386.830050 -2208.761449 173.986693
386.407297 -2210.395673 172.914037
385.984544 -2212.029897 171.841380
385.561791 -2213.664121 170.768724
385.139038 -2215.298345 169.696067
384.716285 -2216.932569 168.623410
384.293532 -2218.566793 167.550754
383.870779 -2220.201017 166.478097
383.448027 -2221.835241 165.405441
383.025274 -2223.469464 164.332784
382.602521 -2225.103688 163.260127
382.179768 -2226.737912 162.187471
381.757015 -2228.372136 161.114814
381.334262 -2230.006360 160.042157
380.911509 -2231.640584 158.969501
380.488756 -2233.274808 157.896844
380.066003 -2234.909032 156.824188
379.643250 -2236.543256 155.751531
379.220498 -2238.177480 154.678874
378.797745 -2239.811704 153.606218
378.374992 -2241.445927 152.533561
377.952239 -2243.080151 151.460905
377.529486 -2244.714375 150.388248
377.106733 -2246.348599 149.315591
376.683980 -2247.982823 148.242935
376.261227 -2249.617047 147.170278
375.838474 -2251.251271 146.097621
375.415721 -2252.885495 145.024965
374.992969 -2254.519719 143.952308
374.570216 -2256.153943 142.879652
374.147463 -2257.788166 141.806995
373.724710 -2259.422390 140.734338
373.301957 -2261.056614 139.661682
372.879204 -2262.690838 138.589025
372.456451 -2264.325062 137.516369
372.033698 -2265.959286 136.443712
371.610945 -2267.593510 135.371055
371.188192 -2269.227734 134.298399
370.765440 -2270.861958 133.225742
370.342687 -2272.496182 132.153085
369.919934 -2274.130406 131.080429
369.497181 -2275.764629 130.007772
369.074428 -2277.398853 128.935116
368.651675 -2279.033077 127.862459
368.228922 -2280.667301 126.789802
367.806169 -2282.301525 125.717146
367.383416 -2283.935749 124.644489
366.960663 -2285.569973 123.571833
366.537910 -2287.204197 122.499176
366.115158 -2288.838421 121.426519
365.692405 -2290.472645 120.353863
365.269652 -2292.106868 119.281206
364.846899 -2293.741092 118.208549
364.424146 -2295.375316 117.135893
364.001393 -2297.009540 116.063236
363.578640 -2298.643764 114.990580
363.155887 -2300.277988 113.917923
362.733134 -2301.912212 112.845266
362.310381 -2303.546436 111.772610
361.887629 -2305.180660 110.699953
361.464876 -2306.814884 109.627296
361.042123 -2308.449107 108.554640
360.619370 -2310.083331 107.481983
360.196617 -2311.717555 106.409327
359.773864 -2313.351779 105.336670
359.351111 -2314.986003 104.264013
358.928358 -2316.620227 103.191357
358.505605 -2318.254451 102.118700
358.082852 -2319.888675 101.046044
357.660100 -2321.522899 99.973387
357.237347 -2323.157123 98.900730
356.814594 -2324.791347 97.828074
356.391841 -2326.425570 96.755417
355.969088 -2328.059794 95.682760
355.546335 -2329.694018 94.610104
355.123582 -2331.328242 93.537447
354.700829 -2332.962466 92.464791
354.278076 -2334.596690 91.392134
353.855323 -2336.230914 90.319477
353.432571 -2337.865138 89.246821
353.009818 -2339.499362 88.174164
352.587065 -2341.133586 87.101508
352.164312 -2342.767809 86.028851
351.741559 -2344.402033 84.956194
351.318806 -2346.036257 83.883538
350.896053 -2347.670481 82.810881
350.473300 -2349.304705 81.738224
350.050547 -2350.938929 80.665568
349.627794 -2352.573153 79.592911
349.205042 -2354.207377 78.520255
348.782289 -2355.841601 77.447598
348.359536 -2357.475825 76.374941
347.936783 -2359.110048 75.302285
347.514030 -2360.744272 74.229628
347.091277 -2362.378496 73.156972
346.668524 -2364.012720 72.084315
346.245771 -2365.646944 71.011658
345.823018 -2367.281168 69.939002
345.400265 -2368.915392 68.866345
344.977513 -2370.549616 67.793688
344.554760 -2372.183840 66.721032
344.132007 -2373.818064 65.648375
343.709254 -2375.452288 64.575719
343.286501 -2377.086511 63.503062
342.863748 -2378.720735 62.430405
342.440995 -2380.354959 61.357749
342.018242 -2381.989183 60.285092
341.595489 -2383.623407 59.212436
341.172736 -2385.257631 58.139779
340.749983 -2386.891855 57.067122
340.327231 -2388.526079 55.994466
339.904478 -2390.160303 54.921809
339.481725 -2391.794527 53.849152
339.058972 -2393.428750 52.776496
338.636219 -2395.062974 51.703839
338.213466 -2396.697198 50.631183
337.790713 -2398.331422 49.558526
337.367960 -2399.965646 48.485869
336.945207 -2401.599870 47.413213
336.522454 -2403.234094 46.340556
336.099702 -2404.868318 45.267900
335.676949 -2406.502542 44.195243
335.254196 -2408.136766 43.122586
334.831443 -2409.770990 42.049930
334.408690 -2411.405213 40.977273
333.985937 -2413.039437 39.904616
333.563184 -2414.673661 38.831960
333.140431 -2416.307885 37.759303
332.717678 -2417.942109 36.686647
332.294925 -2419.576333 35.613990
331.872173 -2421.210557 34.541333
331.449420 -2422.844781 33.468677
331.026667 -2424.479005 32.396020
330.603914 -2426.113229 31.323363
330.181161 -2427.747452 30.250707
329.758408 -2429.381676 29.178050
329.335655 -2431.015900 28.105394
328.912902 -2432.650124 27.032737
328.490149 -2434.284348 25.960080
328.067396 -2435.918572 24.887424
327.644644 -2437.552796 23.814767
327.221891 -2439.187020 22.742111
326.799138 -2440.821244 21.669454
326.376385 -2442.455468 20.596797
325.953632 -2444.089691 19.524141
325.530879 -2445.723915 18.451484
325.108126 -2447.358139 17.378827
324.685373 -2448.992363 16.306171
324.262620 -2450.626587 15.233514
323.839867 -2452.260811 14.160858
323.417115 -2453.895035 13.088201
322.994362 -2455.529259 12.015544
322.571609 -2457.163483 10.942888
322.148856 -2458.797707 9.870231
321.726103 -2460.431931 8.797575
321.303350 -2462.066154 7.724918
320.880597 -2463.700378 6.652261
320.457844 -2465.334602 5.579605
320.035091 -2466.968826 4.506948
319.612338 -2468.603050 3.434291
319.189586 -2470.237274 2.361635
318.766833 -2471.871498 1.288978
318.344080 -2473.505722 0.216322
317.921327 -2475.139946 -0.856335
317.498574 -2476.774170 -1.928992
317.075821 -2478.408393 -3.001648
316.653068 -2480.042617 -4.074305
316.230315 -2481.676841 -5.146961
315.807562 -2483.311065 -6.219618
315.384809 -2484.945289 -7.292275
314.962056 -2486.579513 -8.364931
314.539304 -2488.213737 -9.437588
314.116551 -2489.847961 -10.510245
313.693798 -2491.482185 -11.582901
313.271045 -2493.116409 -12.655558
312.848292 -2494.750633 -13.728214
312.425539 -2496.384856 -14.800871
312.002786 -2498.019080 -15.873528
311.580033 -2499.653304 -16.946184
311.157280 -2501.287528 -18.018841
310.734527 -2502.921752 -19.091497
310.311775 -2504.555976 -20.164154
309.889022 -2506.190200 -21.236811
309.466269 -2507.824424 -22.309467
309.043516 -2509.458648 -23.382124
308.620763 -2511.092872 -24.454781
308.198010 -2512.727095 -25.527437
307.775257 -2514.361319 -26.600094
307.352504 -2515.995543 -27.672750
306.929751 -2517.629767 -28.745407
306.506998 -2519.263991 -29.818064
306.084246 -2520.898215 -30.890720
305.661493 -2522.532439 -31.963377
305.238740 -2524.166663 -33.036033
304.815987 -2525.800887 -34.108690
304.393234 -2527.435111 -35.181347
303.970481 -2529.069334 -36.254003
303.547728 -2530.703558 -37.326660
303.124975 -2532.337782 -38.399317
302.702222 -2533.972006 -39.471973
302.279469 -2535.606230 -40.544630
301.856717 -2537.240454 -41.617286
301.433964 -2538.874678 -42.689943
301.011211 -2540.508902 -43.762600
300.588458 -2542.143126 -44.835256
300.165705 -2543.777350 -45.907913
299.742952 -2545.411574 -46.980569
299.320199 -2547.045797 -48.053226
298.897446 -2548.680021 -49.125883
298.474693 -2550.314245 -50.198539
298.051940 -2551.948469 -51.271196
297.629188 -2553.582693 -52.343853
297.206435 -2555.216917 -53.416509
296.783682 -2556.851141 -54.489166
296.360929 -2558.485365 -55.561822
295.938176 -2560.119589 -56.634479
295.515423 -2561.753813 -57.707136
295.092670 -2563.388036 -58.779792
294.669917 -2565.022260 -59.852449
294.247164 -2566.656484 -60.925106
293.824411 -2568.290708 -61.997762
293.401658 -2569.924932 -63.070419
292.978906 -2571.559156 -64.143075
292.556153 -2573.193380 -65.215732
292.133400 -2574.827604 -66.288389
291.710647 -2576.461828 -67.361045
291.287894 -2578.096052 -68.433702
290.865141 -2579.730276 -69.506358
290.442388 -2581.364499 -70.579015
290.019635 -2582.998723 -71.651672
289.596882 -2584.632947 -72.724328
289.174129 -2586.267171 -73.796985
288.751377 -2587.901395 -74.869642
288.328624 -2589.535619 -75.942298
287.905871 -2591.169843 -77.014955
287.483118 -2592.804067 -78.087611
287.060365 -2594.438291 -79.160268
286.637612 -2596.072515 -80.232925
286.214859 -2597.706738 -81.305581
285.792106 -2599.340962 -82.378238
285.369353 -2600.975186 -83.450894
284.946600 -2602.609410 -84.523551
284.523848 -2604.243634 -85.596208
284.101095 -2605.877858 -86.668864
283.678342 -2607.512082 -87.741521
283.255589 -2609.146306 -88.814178
282.832836 -2610.780530 -89.886834
282.410083 -2612.414754 -90.959491
281.987330 -2614.048977 -92.032147
281.564577 -2615.683201 -93.104804
281.141824 -2617.317425 -94.177461
280.719071 -2618.951649 -95.250117
280.296319 -2620.585873 -96.322774
279.873566 -2622.220097 -97.395430
279.450813 -2623.854321 -98.468087
279.028060 -2625.488545 -99.540744
278.605307 -2627.122769 -100.613400
278.182554 -2628.756993 -101.686057
277.759801 -2630.391217 -102.758714
277.337048 -2632.025440 -103.831370
276.914295 -2633.659664 -104.904027
276.491542 -2635.293888 -105.976683
276.068790 -2636.928112 -107.049340
275.646037 -2638.562336 -108.121997
275.223284 -2640.196560 -109.194653
274.800531 -2641.830784 -110.267310
274.377778 -2643.465008 -111.339966
273.955025 -2645.099232 -112.412623
273.532272 -2646.733456 -113.485280
273.109519 -2648.367679 -114.557936
272.686766 -2650.001903 -115.630593
272.264013 -2651.636127 -116.703250
271.841261 -2653.270351 -117.775906
271.418508 -2654.904575 -118.848563
270.995755 -2656.538799 -119.921219
270.573002 -2658.173023 -120.993876
270.150249 -2659.807247 -122.066533
269.727496 -2661.441471 -123.139189
269.304743 -2663.075695 -124.211846
268.881990 -2664.709918 -125.284502
268.459237 -2666.344142 -126.357159
268.036484 -2667.978366 -127.429816
267.613731 -2669.612590 -128.502472
267.190979 -2671.246814 -129.575129
266.768226 -2672.881038 -130.647786
266.345473 -2674.515262 -131.720442
265.922720 -2676.149486 -132.793099
265.499967 -2677.783710 -133.865755
265.077214 -2679.417934 -134.938412
264.654461 -2681.052158 -136.011069
264.231708 -2682.686381 -137.083725
263.808955 -2684.320605 -138.156382
263.386202 -2685.954829 -139.229038
262.963450 -2687.589053 -140.301695
262.540697 -2689.223277 -141.374352
262.117944 -2690.857501 -142.447008
261.695191 -2692.491725 -143.519665
261.272438 -2694.125949 -144.592322
260.849685 -2695.760173 -145.664978
260.426932 -2697.394397 -146.737635
260.004179 -2699.028620 -147.810291
259.581426 -2700.662844 -148.882948
259.158673 -2702.297068 -149.955605
258.735921 -2703.931292 -151.028261
258.313168 -2705.565516 -152.100918
257.890415 -2707.199740 -153.173575
257.467662 -2708.833964 -154.246231
257.044909 -2710.468188 -155.318888
256.622156 -2712.102412 -156.391544
256.199403 -2713.736636 -157.464201
255.776650 -2715.370860 -158.536858
255.353897 -2717.005083 -159.609514
254.931144 -2718.639307 -160.682171
254.508392 -2720.273531 -161.754827
254.085639 -2721.907755 -162.827484
253.662886 -2723.541979 -163.900141
253.240133 -2725.176203 -164.972797
252.817380 -2726.810427 -166.045454
252.394627 -2728.444651 -167.118111
251.971874 -2730.078875 -168.190767
251.549121 -2731.713099 -169.263424
251.126368 -2733.347322 -170.336080
250.703615 -2734.981546 -171.408737
250.280863 -2736.615770 -172.481394
249.858110 -2738.249994 -173.554050
249.435357 -2739.884218 -174.626707
249.012604 -2741.518442 -175.699363
248.589851 -2743.152666 -176.772020
248.167098 -2744.786890 -177.844677
247.744345 -2746.421114 -178.917333
247.321592 -2748.055338 -179.989990
246.898839 -2749.689561 -181.062647
246.476086 -2751.323785 -182.135303
246.053334 -2752.958009 -183.207960
245.630581 -2754.592233 -184.280616
245.207828 -2756.226457 -185.353273
244.785075 -2757.860681 -186.425930
244.362322 -2759.494905 -187.498586
243.939569 -2761.129129 -188.571243
243.516816 -2762.763353 -189.643899
243.094063 -2764.397577 -190.716556
242.671310 -2766.031801 -191.789213
242.248557 -2767.666024 -192.861869
241.825804 -2769.300248 -193.934526
241.403052 -2770.934472 -195.007183
240.980299 -2772.568696 -196.079839
240.557546 -2774.202920 -197.152496
240.134793 -2775.837144 -198.225152
239.712040 -2777.471368 -199.297809
239.289287 -2779.105592 -200.370466
238.866534 -2780.739816 -201.443122
238.443781 -2782.374040 -202.515779
238.021028 -2784.008263 -203.588435
237.598275 -2785.642487 -204.661092
237.175523 -2787.276711 -205.733749
236.752770 -2788.910935 -206.806405
236.330017 -2790.545159 -207.879062
235.907264 -2792.179383 -208.951719
235.484511 -2793.813607 -210.024375
235.061758 -2795.447831 -211.097032
234.639005 -2797.082055 -212.169688
234.216252 -2798.716279 -213.242345
233.793499 -2800.350503 -214.315002
233.370746 -2801.984726 -215.387658
232.947994 -2803.618950 -216.460315
232.525241 -2805.253174 -217.532971
232.102488 -2806.887398 -218.605628
231.679735 -2808.521622 -219.678285
231.256982 -2810.155846 -220.750941
230.834229 -2811.790070 -221.823598
230.411476 -2813.424294 -222.896255
229.988723 -2815.058518 -223.968911
229.565970 -2816.692742 -225.041568
229.143217 -2818.326965 -226.114224
228.720465 -2819.961189 -227.186881
228.297712 -2821.595413 -228.259538
227.874959 -2823.229637 -229.332194
227.452206 -2824.863861 -230.404851
227.029453 -2826.498085 -231.477508
226.606700 -2828.132309 -232.550164
226.183947 -2829.766533 -233.622821
225.761194 -2831.400757 -234.695477
225.338441 -2833.034981 -235.768134
224.915688 -2834.669204 -236.840791
224.492936 -2836.303428 -237.913447
224.070183 -2837.937652 -238.986104
223.647430 -2839.571876 -240.058760
223.224677 -2841.206100 -241.131417
222.801924 -2842.840324 -242.204074
222.379171 -2844.474548 -243.276730
221.956418 -2846.108772 -244.349387
221.533665 -2847.742996 -245.422044
221.110912 -2849.377220 -246.494700
220.688159 -2851.011444 -247.567357
220.265406 -2852.645667 -248.640013
219.842654 -2854.279891 -249.712670
219.419901 -2855.914115 -250.785327
218.997148 -2857.548339 -251.857983
218.574395 -2859.182563 -252.930640
218.151642 -2860.816787 -254.003296
217.728889 -2862.451011 -255.075953
217.306136 -2864.085235 -256.148610
216.883383 -2865.719459 -257.221266
216.460630 -2867.353683 -258.293923
216.037877 -2868.987906 -259.366580
215.615125 -2870.622130 -260.439236
215.192372 -2872.256354 -261.511893
214.769619 -2873.890578 -262.584549
214.346866 -2875.524802 -263.657206
213.924113 -2877.159026 -264.729863
213.501360 -2878.793250 -265.802519
213.078607 -2880.427474 -266.875176
212.655854 -2882.061698 -267.947832
212.233101 -2883.695922 -269.020489
211.810348 -2885.330145 -270.093146
211.387596 -2886.964369 -271.165802
210.964843 -2888.598593 -272.238459
210.542090 -2890.232817 -273.311116
210.119337 -2891.867041 -274.383772
209.696584 -2893.501265 -275.456429
209.273831 -2895.135489 -276.529085
208.851078 -2896.769713 -277.601742
208.428325 -2898.403937 -278.674399
208.005572 -2900.038161 -279.747055
207.582819 -2901.672385 -280.819712
207.160067 -2903.306608 -281.892368
206.737314 -2904.940832 -282.965025
206.314561 -2906.575056 -284.037682
205.891808 -2908.209280 -285.110338
205.469055 -2909.843504 -286.182995
205.046302 -2911.477728 -287.255652
204.623549 -2913.111952 -288.328308
204.200796 -2914.746176 -289.400965
203.778043 -2916.380400 -290.473621
203.355290 -2918.014624 -291.546278
202.932538 -2919.648847 -292.618935
202.509785 -2921.283071 -293.691591
202.087032 -2922.917295 -294.764248
201.664279 -2924.551519 -295.836904
201.241526 -2926.185743 -296.909561
200.818773 -2927.819967 -297.982218
200.396020 -2929.454191 -299.054874
199.973267 -2931.088415 -300.127531
199.550514 -2932.722639 -301.200188
199.127761 -2934.356863 -302.272844
198.705009 -2935.991087 -303.345501
198.282256 -2937.625310 -304.418157
197.859503 -2939.259534 -305.490814
197.436750 -2940.893758 -306.563471
197.013997 -2942.527982 -307.636127
196.591244 -2944.162206 -308.708784
196.168491 -2945.796430 -309.781440
195.745738 -2947.430654 -310.854097
195.322985 -2949.064878 -311.926754
194.900232 -2950.699102 -312.999410
194.477479 -2952.333326 -314.072067
194.054727 -2953.967549 -315.144724
193.631974 -2955.601773 -316.217380
193.209221 -2957.235997 -317.290037
192.786468 -2958.870221 -318.362693
192.363715 -2960.504445 -319.435350
191.940962 -2962.138669 -320.508007
191.518209 -2963.772893 -321.580663
191.095456 -2965.407117 -322.653320
190.672703 -2967.041341 -323.725977
190.249950 -2968.675565 -324.798633
189.827198 -2970.309788 -325.871290
189.404445 -2971.944012 -326.943946
188.981692 -2973.578236 -328.016603
188.558939 -2975.212460 -329.089260
188.136186 -2976.846684 -330.161916
187.713433 -2978.480908 -331.234573
187.290680 -2980.115132 -332.307229
186.867927 -2981.749356 -333.379886
186.445174 -2983.383580 -334.452543
186.022421 -2985.017804 -335.525199
185.599669 -2986.652028 -336.597856
185.176916 -2988.286251 -337.670513
184.754163 -2989.920475 -338.743169
184.331410 -2991.554699 -339.815826
183.908657 -2993.188923 -340.888482
183.485904 -2994.823147 -341.961139
183.063151 -2996.457371 -343.033796
182.640398 -2998.091595 -344.106452
182.217645 -2999.725819 -345.179109
181.794892 -3001.360043 -346.251765
181.372140 -3002.994267 -347.324422
180.949387 -3004.628490 -348.397079
180.526634 -3006.262714 -349.469735
180.103881 -3007.896938 -350.542392
179.681128 -3009.531162 -351.615049
179.258375 -3011.165386 -352.687705
178.835622 -3012.799610 -353.760362
178.412869 -3014.433834 -354.833018
177.990116 -3016.068058 -355.905675
177.567363 -3017.702282 -356.978332
177.144611 -3019.336506 -358.050988
176.721858 -3020.970730 -359.123645
176.299105 -3022.604953 -360.196301
175.876352 -3024.239177 -361.268958
175.453599 -3025.873401 -362.341615
175.030846 -3027.507625 -363.414271
174.608093 -3029.141849 -364.486928
174.185340 -3030.776073 -365.559585
173.762587 -3032.410297 -366.632241
173.339834 -3034.044521 -367.704898
172.917082 -3035.678745 -368.777554
172.494329 -3037.312969 -369.850211
172.071576 -3038.947192 -370.922868
171.648823 -3040.581416 -371.995524
171.226070 -3042.215640 -373.068181
170.803317 -3043.849864 -374.140837
170.380564 -3045.484088 -375.213494
169.957811 -3047.118312 -376.286151
169.535058 -3048.752536 -377.358807
169.112305 -3050.386760 -378.431464
168.689552 -3052.020984 -379.504121
168.266800 -3053.655208 -380.576777
167.844047 -3055.289431 -381.649434
167.421294 -3056.923655 -382.722090
166.998541 -3058.557879 -383.794747
166.575788 -3060.192103 -384.867404
166.153035 -3061.826327 -385.940060
165.730282 -3063.460551 -387.012717
165.307529 -3065.094775 -388.085373
164.884776 -3066.728999 -389.158030
164.462023 -3068.363223 -390.230687
164.039271 -3069.997447 -391.303343
163.616518 -3071.631671 -392.376000
163.193765 -3073.265894 -393.448657
162.771012 -3074.900118 -394.521313
162.348259 -3076.534342 -395.593970
161.925506 -3078.168566 -396.666626
161.502753 -3079.802790 -397.739283
161.080000 -3081.437014 -398.811940
160.657247 -3083.071238 -399.884596
160.234494 -3084.705462 -400.957253
159.811742 -3086.339686 -402.029910
159.388989 -3087.973910 -403.102566
158.966236 -3089.608133 -404.175223
158.543483 -3091.242357 -405.247879
158.120730 -3092.876581 -406.320536
157.697977 -3094.510805 -407.393193
157.275224 -3096.145029 -408.465849
156.852471 -3097.779253 -409.538506
156.429718 -3099.413477 -410.611162
156.006965 -3101.047701 -411.683819
155.584213 -3102.681925 -412.756476
155.161460 -3104.316149 -413.829132
154.738707 -3105.950372 -414.901789
154.315954 -3107.584596 -415.974446
153.893201 -3109.218820 -417.047102
153.470448 -3110.853044 -418.119759
153.047695 -3112.487268 -419.192415
152.624942 -3114.121492 -420.265072
152.202189 -3115.755716 -421.337729
151.779436 -3117.389940 -422.410385
151.356684 -3119.024164 -423.483042
150.933931 -3120.658388 -424.555698
150.511178 -3122.292612 -425.628355
150.088425 -3123.926835 -426.701012
149.665672 -3125.561059 -427.773668
149.242919 -3127.195283 -428.846325
148.820166 -3128.829507 -429.918982
148.000000 -3132.000000 -432.000000
149.327309 -3131.706595 -433.467026
150.654618 -3131.413190 -434.934051
151.981927 -3131.119785 -436.401077
153.309236 -3130.826379 -437.868103
154.636545 -3130.532974 -439.335128
155.963854 -3130.239569 -440.802154
157.291163 -3129.946164 -442.269180
158.618472 -3129.652759 -443.736205
159.945781 -3129.359354 -445.203231
161.273090 -3129.065949 -446.670257
162.600398 -3128.772543 -448.137283
163.927707 -3128.479138 -449.604308
165.255016 -3128.185733 -451.071334
166.582325 -3127.892328 -452.538360
167.909634 -3127.598923 -454.005385
169.236943 -3127.305518 -455.472411
170.564252 -3127.012113 -456.939437
171.891561 -3126.718708 -458.406462
173.218870 -3126.425302 -459.873488
174.546179 -3126.131897 -461.340514
175.873488 -3125.838492 -462.807539
177.200797 -3125.545087 -464.274565
178.528106 -3125.251682 -465.741591
179.855415 -3124.958277 -467.208616
181.182724 -3124.664872 -468.675642
182.510033 -3124.371466 -470.142668
183.837342 -3124.078061 -471.609694
185.164651 -3123.784656 -473.076719
186.491960 -3123.491251 -474.543745
187.819269 -3123.197846 -476.010771
189.146578 -3122.904441 -477.477796
190.473887 -3122.611036 -478.944822
191.801195 -3122.317630 -480.411848
193.128504 -3122.024225 -481.878873
194.455813 -3121.730820 -483.345899
195.783122 -3121.437415 -484.812925
197.110431 -3121.144010 -486.279950
198.437740 -3120.850605 -487.746976
199.765049 -3120.557200 -489.214002
201.092358 -3120.263795 -490.681027
202.419667 -3119.970389 -492.148053
203.746976 -3119.676984 -493.615079
205.074285 -3119.383579 -495.082105
206.401594 -3119.090174 -496.549130
207.728903 -3118.796769 -498.016156
209.056212 -3118.503364 -499.483182
210.383521 -3118.209959 -500.950207
211.710830 -3117.916553 -502.417233
213.038139 -3117.623148 -503.884259
214.365448 -3117.329743 -505.351284
215.692757 -3117.036338 -506.818310
217.020066 -3116.742933 -508.285336
218.347375 -3116.449528 -509.752361
219.674684 -3116.156123 -511.219387
221.001992 -3115.862717 -512.686413
222.329301 -3115.569312 -514.153438
223.656610 -3115.275907 -515.620464
224.983919 -3114.982502 -517.087490
226.311228 -3114.689097 -518.554516
227.638537 -3114.395692 -520.021541
228.965846 -3114.102287 -521.488567
230.293155 -3113.808881 -522.955593
231.620464 -3113.515476 -524.422618
232.947773 -3113.222071 -525.889644
234.275082 -3112.928666 -527.356670
235.602391 -3112.635261 -528.823695
236.929700 -3112.341856 -530.290721
238.257009 -3112.048451 -531.757747
239.584318 -3111.755046 -533.224772
240.911627 -3111.461640 -534.691798
242.238936 -3111.168235 -536.158824
243.566245 -3110.874830 -537.625849
244.893554 -3110.581425 -539.092875
246.220863 -3110.288020 -540.559901
247.548172 -3109.994615 -542.026926
248.875481 -3109.701210 -543.493952
250.202789 -3109.407804 -544.960978
251.530098 -3109.114399 -546.428004
252.857407 -3108.820994 -547.895029
254.184716 -3108.527589 -549.362055
255.512025 -3108.234184 -550.829081
256.839334 -3107.940779 -552.296106
258.166643 -3107.647374 -553.763132
259.493952 -3107.353968 -555.230158
260.821261 -3107.060563 -556.697183
262.148570 -3106.767158 -558.164209
263.475879 -3106.473753 -559.631235
264.803188 -3106.180348 -561.098260
266.130497 -3105.886943 -562.565286
267.457806 -3105.593538 -564.032312
268.785115 -3105.300133 -565.499337
270.112424 -3105.006727 -566.966363
271.439733 -3104.713322 -568.433389
272.767042 -3104.419917 -569.900415
274.094351 -3104.126512 -571.367440
275.421660 -3103.833107 -572.834466
276.748969 -3103.539702 -574.301492
278.076278 -3103.246297 -575.768517
279.403586 -3102.952891 -577.235543
280.730895 -3102.659486 -578.702569
282.058204 -3102.366081 -580.169594
283.385513 -3102.072676 -581.636620
284.712822 -3101.779271 -583.103646
286.040131 -3101.485866 -584.570671
287.367440 -3101.192461 -586.037697
288.694749 -3100.899055 -587.504723
290.022058 -3100.605650 -588.971748
291.349367 -3100.312245 -590.438774
292.676676 -3100.018840 -591.905800
294.003985 -3099.725435 -593.372826
295.331294 -3099.432030 -594.839851
296.658603 -3099.138625 -596.306877
297.985912 -3098.845219 -597.773903
299.313221 -3098.551814 -599.240928
300.640530 -3098.258409 -600.707954
301.967839 -3097.965004 -602.174980
303.295148 -3097.671599 -603.642005
304.622457 -3097.378194 -605.109031
305.949766 -3097.084789 -606.576057
307.277075 -3096.791384 -608.043082
308.604383 -3096.497978 -609.510108
309.931692 -3096.204573 -610.977134
311.259001 -3095.911168 -612.444159
312.586310 -3095.617763 -613.911185
313.913619 -3095.324358 -615.378211
315.240928 -3095.030953 -616.845236
316.568237 -3094.737548 -618.312262
317.895546 -3094.444142 -619.779288
319.222855 -3094.150737 -621.246314
320.550164 -3093.857332 -622.713339
321.877473 -3093.563927 -624.180365
323.204782 -3093.270522 -625.647391
324.532091 -3092.977117 -627.114416
325.859400 -3092.683712 -628.581442
327.186709 -3092.390306 -630.048468
328.514018 -3092.096901 -631.515493
329.841327 -3091.803496 -632.982519
331.168636 -3091.510091 -634.449545
332.495945 -3091.216686 -635.916570
333.823254 -3090.923281 -637.383596
335.150563 -3090.629876 -638.850622
336.477872 -3090.336471 -640.317647
337.805180 -3090.043065 -641.784673
339.132489 -3089.749660 -643.251699
340.459798 -3089.456255 -644.718725
341.787107 -3089.162850 -646.185750
343.114416 -3088.869445 -647.652776
344.441725 -3088.576040 -649.119802
345.769034 -3088.282635 -650.586827
347.096343 -3087.989229 -652.053853
348.423652 -3087.695824 -653.520879
349.750961 -3087.402419 -654.987904
351.078270 -3087.109014 -656.454930
352.405579 -3086.815609 -657.921956
353.732888 -3086.522204 -659.388981
355.060197 -3086.228799 -660.856007
356.387506 -3085.935393 -662.323033
357.714815 -3085.641988 -663.790058
359.042124 -3085.348583 -665.257084
360.369433 -3085.055178 -666.724110
361.696742 -3084.761773 -668.191136
363.024051 -3084.468368 -669.658161
364.351360 -3084.174963 -671.125187
365.678669 -3083.881557 -672.592213
367.005977 -3083.588152 -674.059238
368.333286 -3083.294747 -675.526264
369.660595 -3083.001342 -676.993290
370.987904 -3082.707937 -678.460315
372.315213 -3082.414532 -679.927341
373.642522 -3082.121127 -681.394367
374.969831 -3081.827722 -682.861392
376.297140 -3081.534316 -684.328418
377.624449 -3081.240911 -685.795444
378.951758 -3080.947506 -687.262469
380.279067 -3080.654101 -688.729495
381.606376 -3080.360696 -690.196521
382.933685 -3080.067291 -691.663547
384.260994 -3079.773886 -693.130572
385.588303 -3079.480480 -694.597598
386.915612 -3079.187075 -696.064624
388.242921 -3078.893670 -697.531649
389.570230 -3078.600265 -698.998675
390.897539 -3078.306860 -700.465701
392.224848 -3078.013455 -701.932726
393.552157 -3077.720050 -703.399752
394.879466 -3077.426644 -704.866778
396.206774 -3077.133239 -706.333803
397.534083 -3076.839834 -707.800829
398.861392 -3076.546429 -709.267855
400.188701 -3076.253024 -710.734880
401.516010 -3075.959619 -712.201906
402.843319 -3075.666214 -713.668932
404.170628 -3075.372809 -715.135957
405.497937 -3075.079403 -716.602983
406.825246 -3074.785998 -718.070009
408.152555 -3074.492593 -719.537035
409.479864 -3074.199188 -721.004060
410.807173 -3073.905783 -722.471086
412.134482 -3073.612378 -723.938112
413.461791 -3073.318973 -725.405137
414.789100 -3073.025567 -726.872163
416.116409 -3072.732162 -728.339189
417.443718 -3072.438757 -729.806214
418.771027 -3072.145352 -731.273240
420.098336 -3071.851947 -732.740266
421.425645 -3071.558542 -734.207291
422.752954 -3071.265137 -735.674317
424.080263 -3070.971731 -737.141343
425.407571 -3070.678326 -738.608368
426.734880 -3070.384921 -740.075394
428.062189 -3070.091516 -741.542420
429.389498 -3069.798111 -743.009446
430.716807 -3069.504706 -744.476471
432.044116 -3069.211301 -745.943497
433.371425 -3068.917895 -747.410523
434.698734 -3068.624490 -748.877548
436.026043 -3068.331085 -750.344574
437.353352 -3068.037680 -751.811600
438.680661 -3067.744275 -753.278625
440.007970 -3067.450870 -754.745651
441.335279 -3067.157465 -756.212677
442.662588 -3066.864060 -757.679702
443.989897 -3066.570654 -759.146728
445.317206 -3066.277249 -760.613754
446.644515 -3065.983844 -762.080779
447.971824 -3065.690439 -763.547805
449.299133 -3065.397034 -765.014831
450.626442 -3065.103629 -766.481857
451.953751 -3064.810224 -767.948882
453.281060 -3064.516818 -769.415908
454.608368 -3064.223413 -770.882934
455.935677 -3063.930008 -772.349959
457.262986 -3063.636603 -773.816985
458.590295 -3063.343198 -775.284011
459.917604 -3063.049793 -776.751036
461.244913 -3062.756388 -778.218062
462.572222 -3062.462982 -779.685088
463.899531 -3062.169577 -781.152113
465.226840 -3061.876172 -782.619139
466.554149 -3061.582767 -784.086165
467.881458 -3061.289362 -785.553190
469.208767 -3060.995957 -787.020216
470.536076 -3060.702552 -788.487242
471.863385 -3060.409146 -789.954268
473.190694 -3060.115741 -791.421293
474.518003 -3059.822336 -792.888319
475.845312 -3059.528931 -794.355345
477.172621 -3059.235526 -795.822370
478.499930 -3058.942121 -797.289396
479.827239 -3058.648716 -798.756422
481.154548 -3058.355311 -800.223447
482.481857 -3058.061905 -801.690473
483.809165 -3057.768500 -803.157499
485.136474 -3057.475095 -804.624524
486.463783 -3057.181690 -806.091550
487.791092 -3056.888285 -807.558576
489.118401 -3056.594880 -809.025601
490.445710 -3056.301475 -810.492627
491.773019 -3056.008069 -811.959653
493.100328 -3055.714664 -813.426678
494.427637 -3055.421259 -814.893704
495.754946 -3055.127854 -816.360730
497.082255 -3054.834449 -817.827756
498.409564 -3054.541044 -819.294781
499.736873 -3054.247639 -820.761807
501.064182 -3053.954233 -822.228833
502.391491 -3053.660828 -823.695858
503.718800 -3053.367423 -825.162884
505.046109 -3053.074018 -826.629910
506.373418 -3052.780613 -828.096935
507.700727 -3052.487208 -829.563961
509.028036 -3052.193803 -831.030987
510.355345 -3051.900398 -832.498012
511.682654 -3051.606992 -833.965038
513.009962 -3051.313587 -835.432064
514.337271 -3051.020182 -836.899089
515.664580 -3050.726777 -838.366115
516.991889 -3050.433372 -839.833141
518.319198 -3050.139967 -841.300167
519.646507 -3049.846562 -842.767192
520.973816 -3049.553156 -844.234218
522.301125 -3049.259751 -845.701244
523.628434 -3048.966346 -847.168269
524.955743 -3048.672941 -848.635295
526.283052 -3048.379536 -850.102321
527.610361 -3048.086131 -851.569346
528.937670 -3047.792726 -853.036372
530.264979 -3047.499320 -854.503398
531.592288 -3047.205915 -855.970423
532.919597 -3046.912510 -857.437449
534.246906 -3046.619105 -858.904475
535.574215 -3046.325700 -860.371500
536.901524 -3046.032295 -861.838526
538.228833 -3045.738890 -863.305552
539.556142 -3045.445484 -864.772578
540.883451 -3045.152079 -866.239603
542.210759 -3044.858674 -867.706629
543.538068 -3044.565269 -869.173655
544.865377 -3044.271864 -870.640680
546.192686 -3043.978459 -872.107706
547.519995 -3043.685054 -873.574732
548.847304 -3043.391649 -875.041757
550.174613 -3043.098243 -876.508783
551.501922 -3042.804838 -877.975809
552.829231 -3042.511433 -879.442834
554.156540 -3042.218028 -880.909860
555.483849 -3041.924623 -882.376886
556.811158 -3041.631218 -883.843911
558.138467 -3041.337813 -885.310937
559.465776 -3041.044407 -886.777963
560.793085 -3040.751002 -888.244989
562.120394 -3040.457597 -889.712014
563.447703 -3040.164192 -891.179040
564.775012 -3039.870787 -892.646066
566.102321 -3039.577382 -894.113091
567.429630 -3039.283977 -895.580117
568.756939 -3038.990571 -897.047143
570.084248 -3038.697166 -898.514168
571.411556 -3038.403761 -899.981194
572.738865 -3038.110356 -901.448220
574.066174 -3037.816951 -902.915245
575.393483 -3037.523546 -904.382271
576.720792 -3037.230141 -905.849297
578.048101 -3036.936736 -907.316322
579.375410 -3036.643330 -908.783348
580.702719 -3036.349925 -910.250374
582.030028 -3036.056520 -911.717399
583.357337 -3035.763115 -913.184425
584.684646 -3035.469710 -914.651451
586.011955 -3035.176305 -916.118477
587.339264 -3034.882900 -917.585502
588.666573 -3034.589494 -919.052528
589.993882 -3034.296089 -920.519554
591.321191 -3034.002684 -921.986579
592.648500 -3033.709279 -923.453605
593.975809 -3033.415874 -924.920631
595.303118 -3033.122469 -926.387656
596.630427 -3032.829064 -927.854682
597.957736 -3032.535658 -929.321708
599.285045 -3032.242253 -930.788733
600.612353 -3031.948848 -932.255759
601.939662 -3031.655443 -933.722785
603.266971 -3031.362038 -935.189810
604.594280 -3031.068633 -936.656836
605.921589 -3030.775228 -938.123862
607.248898 -3030.481822 -939.590888
608.576207 -3030.188417 -941.057913
609.903516 -3029.895012 -942.524939
611.230825 -3029.601607 -943.991965
612.558134 -3029.308202 -945.458990
613.885443 -3029.014797 -946.926016
615.212752 -3028.721392 -948.393042
616.540061 -3028.427987 -949.860067
617.867370 -3028.134581 -951.327093
619.194679 -3027.841176 -952.794119
620.521988 -3027.547771 -954.261144
621.849297 -3027.254366 -955.728170
623.176606 -3026.960961 -957.195196
624.503915 -3026.667556 -958.662221
625.831224 -3026.374151 -960.129247
627.158533 -3026.080745 -961.596273
628.485842 -3025.787340 -963.063299
629.813150 -3025.493935 -964.530324
631.140459 -3025.200530 -965.997350
632.467768 -3024.907125 -967.464376
633.795077 -3024.613720 -968.931401
635.122386 -3024.320315 -970.398427
636.449695 -3024.026909 -971.865453
637.777004 -3023.733504 -973.332478
639.104313 -3023.440099 -974.799504
640.431622 -3023.146694 -976.266530
641.758931 -3022.853289 -977.733555
643.086240 -3022.559884 -979.200581
644.413549 -3022.266479 -980.667607
645.740858 -3021.973074 -982.134632
647.068167 -3021.679668 -983.601658
648.395476 -3021.386263 -985.068684
649.722785 -3021.092858 -986.535709
651.050094 -3020.799453 -988.002735
652.377403 -3020.506048 -989.469761
653.704712 -3020.212643 -990.936787
655.032021 -3019.919238 -992.403812
656.359330 -3019.625832 -993.870838
657.686639 -3019.332427 -995.337864
659.013947 -3019.039022 -996.804889
660.341256 -3018.745617 -998.271915
661.668565 -3018.452212 -999.738941
662.995874 -3018.158807 -1001.205966
664.323183 -3017.865402 -1002.672992
665.650492 -3017.571996 -1004.140018
666.977801 -3017.278591 -1005.607043
668.305110 -3016.985186 -1007.074069
669.632419 -3016.691781 -1008.541095
670.959728 -3016.398376 -1010.008120
672.287037 -3016.104971 -1011.475146
673.614346 -3015.811566 -1012.942172
674.941655 -3015.518160 -1014.409198
676.268964 -3015.224755 -1015.876223
677.596273 -3014.931350 -1017.343249
678.923582 -3014.637945 -1018.810275
680.250891 -3014.344540 -1020.277300
681.578200 -3014.051135 -1021.744326
682.905509 -3013.757730 -1023.211352
684.232818 -3013.464325 -1024.678377
685.560127 -3013.170919 -1026.145403
686.887436 -3012.877514 -1027.612429
688.214744 -3012.584109 -1029.079454
689.542053 -3012.290704 -1030.546480
690.869362 -3011.997299 -1032.013506
692.196671 -3011.703894 -1033.480531
693.523980 -3011.410489 -1034.947557
694.851289 -3011.117083 -1036.414583
696.178598 -3010.823678 -1037.881609
697.505907 -3010.530273 -1039.348634
698.833216 -3010.236868 -1040.815660
700.160525 -3009.943463 -1042.282686
701.487834 -3009.650058 -1043.749711
702.815143 -3009.356653 -1045.216737
704.142452 -3009.063247 -1046.683763
705.469761 -3008.769842 -1048.150788
706.797070 -3008.476437 -1049.617814
708.124379 -3008.183032 -1051.084840
709.451688 -3007.889627 -1052.551865
710.778997 -3007.596222 -1054.018891
712.106306 -3007.302817 -1055.485917
713.433615 -3007.009412 -1056.952942
714.760924 -3006.716006 -1058.419968
716.088233 -3006.422601 -1059.886994
717.415541 -3006.129196 -1061.354020
718.742850 -3005.835791 -1062.821045
720.070159 -3005.542386 -1064.288071
721.397468 -3005.248981 -1065.755097
722.724777 -3004.955576 -1067.222122
724.052086 -3004.662170 -1068.689148
725.379395 -3004.368765 -1070.156174
726.706704 -3004.075360 -1071.623199
728.034013 -3003.781955 -1073.090225
729.361322 -3003.488550 -1074.557251
730.688631 -3003.195145 -1076.024276
732.015940 -3002.901740 -1077.491302
733.343249 -3002.608334 -1078.958328
734.670558 -3002.314929 -1080.425353
735.997867 -3002.021524 -1081.892379
737.325176 -3001.728119 -1083.359405
738.652485 -3001.434714 -1084.826430
739.979794 -3001.141309 -1086.293456
741.307103 -3000.847904 -1087.760482
742.634412 -3000.554498 -1089.227508
743.961721 -3000.261093 -1090.694533
745.289030 -2999.967688 -1092.161559
746.616338 -2999.674283 -1093.628585
747.943647 -2999.380878 -1095.095610
749.270956 -2999.087473 -1096.562636
750.598265 -2998.794068 -1098.029662
751.925574 -2998.500663 -1099.496687
753.252883 -2998.207257 -1100.963713
754.580192 -2997.913852 -1102.430739
755.907501 -2997.620447 -1103.897764
757.234810 -2997.327042 -1105.364790
758.562119 -2997.033637 -1106.831816
759.889428 -2996.740232 -1108.298841
761.216737 -2996.446827 -1109.765867
762.544046 -2996.153421 -1111.232893
763.871355 -2995.860016 -1112.699919
765.198664 -2995.566611 -1114.166944
766.525973 -2995.273206 -1115.633970
767.853282 -2994.979801 -1117.100996
769.180591 -2994.686396 -1118.568021
770.507900 -2994.392991 -1120.035047
771.835209 -2994.099585 -1121.502073
773.162518 -2993.806180 -1122.969098
774.489827 -2993.512775 -1124.436124
775.817135 -2993.219370 -1125.903150
777.144444 -2992.925965 -1127.370175
778.471753 -2992.632560 -1128.837201
779.799062 -2992.339155 -1130.304227
781.126371 -2992.045750 -1131.771252
782.453680 -2991.752344 -1133.238278
783.780989 -2991.458939 -1134.705304
785.108298 -2991.165534 -1136.172330
786.435607 -2990.872129 -1137.639355
787.762916 -2990.578724 -1139.106381
789.090225 -2990.285319 -1140.573407
790.417534 -2989.991914 -1142.040432
791.744843 -2989.698508 -1143.507458
793.072152 -2989.405103 -1144.974484
794.399461 -2989.111698 -1146.441509
795.726770 -2988.818293 -1147.908535
797.054079 -2988.524888 -1149.375561
798.381388 -2988.231483 -1150.842586
799.708697 -2987.938078 -1152.309612
801.036006 -2987.644672 -1153.776638
802.363315 -2987.351267 -1155.243663
803.690623 -2987.057862 -1156.710689
805.017932 -2986.764457 -1158.177715
806.345241 -2986.471052 -1159.644741
807.672550 -2986.177647 -1161.111766
808.999859 -2985.884242 -1162.578792
810.327168 -2985.590836 -1164.045818
811.654477 -2985.297431 -1165.512843
812.981786 -2985.004026 -1166.979869
814.309095 -2984.710621 -1168.446895
815.636404 -2984.417216 -1169.913920
816.963713 -2984.123811 -1171.380946
818.291022 -2983.830406 -1172.847972
819.618331 -2983.537001 -1174.314997
820.945640 -2983.243595 -1175.782023
822.272949 -2982.950190 -1177.249049
823.600258 -2982.656785 -1178.716074
824.927567 -2982.363380 -1180.183100
826.254876 -2982.069975 -1181.650126
827.582185 -2981.776570 -1183.117151
828.909494 -2981.483165 -1184.584177
830.236803 -2981.189759 -1186.051203
831.564112 -2980.896354 -1187.518229
832.891420 -2980.602949 -1188.985254
834.218729 -2980.309544 -1190.452280
835.546038 -2980.016139 -1191.919306
836.873347 -2979.722734 -1193.386331
838.200656 -2979.429329 -1194.853357
839.527965 -2979.135923 -1196.320383
840.855274 -2978.842518 -1197.787408
842.182583 -2978.549113 -1199.254434
843.509892 -2978.255708 -1200.721460
844.837201 -2977.962303 -1202.188485
846.164510 -2977.668898 -1203.655511
847.491819 -2977.375493 -1205.122537
848.819128 -2977.082088 -1206.589562
850.146437 -2976.788682 -1208.056588
851.473746 -2976.495277 -1209.523614
852.801055 -2976.201872 -1210.990640
854.128364 -2975.908467 -1212.457665
855.455673 -2975.615062 -1213.924691
856.782982 -2975.321657 -1215.391717
858.110291 -2975.028252 -1216.858742
859.437600 -2974.734846 -1218.325768
860.764909 -2974.441441 -1219.792794
862.092217 -2974.148036 -1221.259819
863.419526 -2973.854631 -1222.726845
864.746835 -2973.561226 -1224.193871
866.074144 -2973.267821 -1225.660896
867.401453 -2972.974416 -1227.127922
868.728762 -2972.681010 -1228.594948
870.056071 -2972.387605 -1230.061973
871.383380 -2972.094200 -1231.528999
872.710689 -2971.800795 -1232.996025
874.037998 -2971.507390 -1234.463051
875.365307 -2971.213985 -1235.930076
876.692616 -2970.920580 -1237.397102
878.019925 -2970.627174 -1238.864128
879.347234 -2970.333769 -1240.331153
880.674543 -2970.040364 -1241.798179
882.001852 -2969.746959 -1243.265205
883.329161 -2969.453554 -1244.732230
884.656470 -2969.160149 -1246.199256
885.983779 -2968.866744 -1247.666282
887.311088 -2968.573339 -1249.133307
888.638397 -2968.279933 -1250.600333
889.965706 -2967.986528 -1252.067359
891.293014 -2967.693123 -1253.534384
892.620323 -2967.399718 -1255.001410
893.947632 -2967.106313 -1256.468436
895.274941 -2966.812908 -1257.935461
896.602250 -2966.519503 -1259.402487
897.929559 -2966.226097 -1260.869513
899.256868 -2965.932692 -1262.336539
900.584177 -2965.639287 -1263.803564
901.911486 -2965.345882 -1265.270590
903.238795 -2965.052477 -1266.737616
904.566104 -2964.759072 -1268.204641
905.893413 -2964.465667 -1269.671667
907.220722 -2964.172261 -1271.138693
908.548031 -2963.878856 -1272.605718
909.875340 -2963.585451 -1274.072744
911.202649 -2963.292046 -1275.539770
912.529958 -2962.998641 -1277.006795
913.857267 -2962.705236 -1278.473821
915.184576 -2962.411831 -1279.940847
916.511885 -2962.118426 -1281.407872
917.839194 -2961.825020 -1282.874898
919.166503 -2961.531615 -1284.341924
920.493811 -2961.238210 -1285.808950
921.821120 -2960.944805 -1287.275975
923.148429 -2960.651400 -1288.743001
924.475738 -2960.357995 -1290.210027
925.803047 -2960.064590 -1291.677052
927.130356 -2959.771184 -1293.144078
928.457665 -2959.477779 -1294.611104
929.784974 -2959.184374 -1296.078129
931.112283 -2958.890969 -1297.545155
932.439592 -2958.597564 -1299.012181
933.766901 -2958.304159 -1300.479206
935.094210 -2958.010754 -1301.946232
936.421519 -2957.717348 -1303.413258
937.748828 -2957.423943 -1304.880283
939.076137 -2957.130538 -1306.347309
940.403446 -2956.837133 -1307.814335
941.730755 -2956.543728 -1309.281361
943.058064 -2956.250323 -1310.748386
944.385373 -2955.956918 -1312.215412
945.712682 -2955.663512 -1313.682438
947.039991 -2955.370107 -1315.149463
948.367300 -2955.076702 -1316.616489
949.694608 -2954.783297 -1318.083515
951.021917 -2954.489892 -1319.550540
952.349226 -2954.196487 -1321.017566
953.676535 -2953.903082 -1322.484592
955.003844 -2953.609677 -1323.951617
956.331153 -2953.316271 -1325.418643
957.658462 -2953.022866 -1326.885669
958.985771 -2952.729461 -1328.352694
960.313080 -2952.436056 -1329.819720
961.640389 -2952.142651 -1331.286746
962.967698 -2951.849246 -1332.753772
964.295007 -2951.555841 -1334.220797
965.622316 -2951.262435 -1335.687823
966.949625 -2950.969030 -1337.154849
968.276934 -2950.675625 -1338.621874
969.604243 -2950.382220 -1340.088900
970.931552 -2950.088815 -1341.555926
972.258861 -2949.795410 -1343.022951
973.586170 -2949.502005 -1344.489977
974.913479 -2949.208599 -1345.957003
976.240788 -2948.915194 -1347.424028
977.568097 -2948.621789 -1348.891054
978.895405 -2948.328384 -1350.358080
980.222714 -2948.034979 -1351.825105
981.550023 -2947.741574 -1353.292131
982.877332 -2947.448169 -1354.759157
984.204641 -2947.154764 -1356.226182
985.531950 -2946.861358 -1357.693208
986.859259 -2946.567953 -1359.160234
988.186568 -2946.274548 -1360.627260
989.513877 -2945.981143 -1362.094285
990.841186 -2945.687738 -1363.561311
992.168495 -2945.394333 -1365.028337
993.495804 -2945.100928 -1366.495362
994.823113 -2944.807522 -1367.962388
996.150422 -2944.514117 -1369.429414
997.477731 -2944.220712 -1370.896439
998.805040 -2943.927307 -1372.363465
1000.132349 -2943.633902 -1373.830491
1001.459658 -2943.340497 -1375.297516
1002.786967 -2943.047092 -1376.764542
1004.114276 -2942.753686 -1378.231568
1005.441585 -2942.460281 -1379.698593
1006.768894 -2942.166876 -1381.165619
1008.096202 -2941.873471 -1382.632645
1009.423511 -2941.580066 -1384.099671
1010.750820 -2941.286661 -1385.566696
1012.078129 -2940.993256 -1387.033722
1013.405438 -2940.699850 -1388.500748
1014.732747 -2940.406445 -1389.967773
1016.060056 -2940.113040 -1391.434799
1017.387365 -2939.819635 -1392.901825
1018.714674 -2939.526230 -1394.368850
1020.041983 -2939.232825 -1395.835876
1021.369292 -2938.939420 -1397.302902
1022.696601 -2938.646015 -1398.769927
1024.023910 -2938.352609 -1400.236953
1025.351219 -2938.059204 -1401.703979
1026.678528 -2937.765799 -1403.171004
1028.005837 -2937.472394 -1404.638030
1029.333146 -2937.178989 -1406.105056
1030.660455 -2936.885584 -1407.572082
1031.987764 -2936.592179 -1409.039107
1033.315073 -2936.298773 -1410.506133
1034.642382 -2936.005368 -1411.973159
1035.969691 -2935.711963 -1413.440184
1037.296999 -2935.418558 -1414.907210
1038.624308 -2935.125153 -1416.374236
1039.951617 -2934.831748 -1417.841261
1041.278926 -2934.538343 -1419.308287
1042.606235 -2934.244937 -1420.775313
1043.933544 -2933.951532 -1422.242338
1045.260853 -2933.658127 -1423.709364
1046.588162 -2933.364722 -1425.176390
1047.915471 -2933.071317 -1426.643415
1049.242780 -2932.777912 -1428.110441
1050.570089 -2932.484507 -1429.577467
1051.897398 -2932.191101 -1431.044493
1053.224707 -2931.897696 -1432.511518
1054.552016 -2931.604291 -1433.978544
1055.879325 -2931.310886 -1435.445570
1057.206634 -2931.017481 -1436.912595
1058.533943 -2930.724076 -1438.379621
1059.861252 -2930.430671 -1439.846647
1061.188561 -2930.137266 -1441.313672
1062.515870 -2929.843860 -1442.780698
1063.843179 -2929.550455 -1444.247724
1065.170488 -2929.257050 -1445.714749
1066.497796 -2928.963645 -1447.181775
1067.825105 -2928.670240 -1448.648801
1069.152414 -2928.376835 -1450.115826
1070.479723 -2928.083430 -1451.582852
